-0.015640 -0.010389 0.860238
0.030539 -0.031818 1.718056
0.027710 -0.061049 2.577992
0.038157 -0.070518 3.437307
-0.039727 -0.084373 4.294098
-0.102042 -0.108789 5.150886
-0.181274 -0.126547 6.007585
-0.245866 -0.130358 6.864592
-0.298719 -0.143770 7.723168
-0.332426 -0.154973 8.583033
-0.358514 -0.164990 9.441712
-0.390009 -0.171890 10.301540
-0.442046 -0.184224 11.160233
-0.486220 -0.187908 12.018682
-0.518795 -0.200011 12.873848
-0.574037 -0.200002 13.735746
-0.630853 -0.207642 14.604581
-0.691601 -0.208185 15.484100
-0.739257 -0.219695 16.374674
-0.793334 -0.229796 17.274716
-0.853588 -0.243174 18.178776
-0.926055 -0.258327 19.088815
-0.956418 -0.268481 20.003355
-0.993617 -0.277570 20.921064
-1.008284 -0.304286 21.849260
-1.045177 -0.311570 22.784651
-1.101947 -0.327076 23.720135
-1.160363 -0.320541 24.662312
-1.222098 -0.339133 25.606995
-1.270092 -0.358028 26.555021
-1.347355 -0.382482 27.504875
-1.397670 -0.409634 28.463206
-1.451561 -0.429426 29.431375
-1.509854 -0.437891 30.406628
-1.565790 -0.435349 31.385858
-1.608343 -0.440447 32.365539
-1.702969 -0.439696 33.341533
-1.770274 -0.443617 34.325055
-1.814882 -0.459625 35.337299
-1.859325 -0.505389 36.395827
-1.946286 -0.504363 37.436834
-2.028478 -0.488216 38.480018
-2.096958 -0.493844 39.512798
-2.175308 -0.481670 40.547642
-2.251030 -0.464754 41.570481
-2.346172 -0.450363 42.590815
-2.413300 -0.477404 43.600745
-2.485057 -0.483890 44.606080
-2.553199 -0.495672 45.607351
-2.590753 -0.492791 46.608339
-2.657424 -0.502214 47.603692
-2.719306 -0.495978 48.590771
-2.766358 -0.487215 49.570143
-2.863114 -0.487362 50.549864
-2.914618 -0.504807 51.531924
-2.972325 -0.514376 52.509321
-3.023519 -0.524968 53.480513
-3.086295 -0.533587 54.443858
-3.142361 -0.559824 55.407723
-3.224796 -0.574953 56.365070
-3.305521 -0.583090 57.325986
-3.420008 -0.591450 58.283160
-3.491125 -0.590762 59.234844
-3.548834 -0.602376 60.176642
-3.643195 -0.593721 61.099119
-3.739754 -0.593818 62.011581
-3.821376 -0.598530 62.921729
-3.864527 -0.608593 63.822253
-3.967029 -0.632083 64.701951
-4.016831 -0.645331 65.572227
-4.105315 -0.656076 66.425670
-4.188757 -0.652593 67.267693
-4.255969 -0.649923 68.096744
-4.316507 -0.662956 68.914012
-4.355411 -0.689523 69.720193
-4.450354 -0.697637 70.511506
-4.551866 -0.709851 71.284180
-4.612188 -0.722887 72.038299
-4.643312 -0.750163 72.771127
-4.741613 -0.751163 73.480344
-4.842614 -0.766694 74.171119
-4.988395 -0.756160 74.835238
-5.013306 -0.774380 75.494354
-5.090765 -0.794328 76.123211
-5.155093 -0.820051 76.733498
-5.193486 -0.837899 77.328753
-5.233926 -0.845691 77.911715
-5.300373 -0.855161 78.480363
-5.348181 -0.866852 79.035206
-5.360577 -0.884129 79.578870
-5.354836 -0.891622 80.110766
-5.420527 -0.914917 80.618648
-5.425861 -0.925064 81.120541
-5.451396 -0.938946 81.607771
-5.449045 -0.949607 82.082282
-5.424888 -0.955788 82.541885
-5.369169 -0.967705 82.993335
-5.326702 -0.973996 83.441458
-5.299377 -0.992150 83.877949
-5.222383 -0.996006 84.309829
-5.100499 -1.001100 84.724118
-4.943861 -0.989735 85.106253
-4.710800 -0.983762 85.451561
-4.523076 -0.994514 85.801148
-4.326989 -0.997549 86.153464
-4.092157 -1.008482 86.473206
-3.840731 -1.020447 86.755998
-3.874249 -1.097171 87.134126
-3.585278 -1.107344 87.370667
-3.293435 -1.143828 87.623991
-2.983025 -1.154179 87.849038
-2.643895 -1.178588 88.009657
-2.309688 -1.192103 88.190714
-1.967712 -1.225317 88.330671
-1.621763 -1.252136 88.486258
-1.279210 -1.247646 88.653295
-0.918569 -1.261809 88.760413
-0.547142 -1.270621 88.873684
-0.181309 -1.265478 88.995453
0.192580 -1.287803 89.087483
0.566349 -1.300907 89.192961
0.951909 -1.327683 89.267758
1.350389 -1.355237 89.329508
1.760641 -1.376532 89.350817
2.182507 -1.383300 89.394319
2.609979 -1.391703 89.435978
3.056610 -1.414801 89.489181
3.521867 -1.441178 89.536647
3.994519 -1.468185 89.580989
4.481478 -1.490192 89.600621
4.977555 -1.511878 89.641630
5.491185 -1.535285 89.672871
6.021112 -1.556134 89.690756
6.566575 -1.581539 89.706145
7.128338 -1.611094 89.748964
7.710941 -1.637786 89.784046
8.313980 -1.655538 89.791762
8.932808 -1.676852